ply
format ascii 1.0
element vertex 1680
property float32 x
property float32 y
property float32 z
end_header
0.423131 0.270795 -0.426676 
0.452802 0.241309 -0.421871 
0.417255 0.229288 -0.429479 
0.589983 0.275591 -0.373294 
0.580263 0.266514 -0.415338 
0.473031 0.312879 -0.437352 
0.465269 0.397135 -0.396066 
0.411715 0.22212 -0.354026 
0.42612 0.230482 -0.306753 
0.441183 0.289591 -0.309786 
0.423727 0.393798 -0.322697 
0.408021 0.371273 -0.361215 
0.410295 0.277892 -0.36491 
0.531368 0.261463 -0.422925 
0.501032 0.32676 -0.4167 
0.495203 0.250715 -0.436193 
0.476055 0.244126 -0.432574 
0.540506 0.347941 -0.334004 
0.572395 0.271623 -0.342878 
0.477083 0.302537 -0.293216 
0.515949 0.335162 -0.30782 
0.488918 0.402297 -0.307326 
0.46995 0.406 -0.309976 
0.527855 0.40034 -0.338403 
-1.54697 0.845956 -0.328292 
-1.59236 0.813428 -0.404103 
-1.52624 0.924482 -0.433412 
-1.62813 0.763859 -0.440734 
-1.56059 0.915066 -0.475845 
-1.66896 0.772539 -0.475492 
-1.60357 0.921356 -0.490317 
-1.71593 0.780301 -0.486301 
-1.64433 0.943423 -0.495461 
-1.76668 0.794667 -0.477396 
-1.69198 0.968232 -0.478763 
-1.88037 0.827234 -0.395964 
-1.8839 0.826503 -0.333973 
-1.83485 0.948188 -0.294472 
-1.81223 1.00124 -0.317275 
-1.80512 1.00153 -0.388431 
-1.82548 0.948568 -0.389343 
-1.73577 0.476367 -0.464428 
-1.74253 0.598564 -0.459654 
-1.69432 0.606926 -0.454139 
-1.73886 0.673118 -0.472534 
-1.68529 0.673299 -0.466671 
-1.75559 0.676129 -0.470141 
-1.77503 0.472986 -0.449096 
-1.78837 0.587151 -0.439508 
-1.80852 0.688242 -0.441029 
-1.82195 0.804586 -0.427932 
-1.81724 0.468763 -0.418935 
-1.83579 0.5869 -0.416793 
-1.86338 0.687541 -0.408691 
-1.69884 0.477425 -0.459323 
-1.66744 0.602293 -0.43175 
-1.65078 0.678452 -0.431116 
-1.61673 0.743308 -0.384954 
-1.65585 0.658712 -0.376239 
-1.67764 0.584436 -0.387691 
-1.68469 0.496424 -0.394938 
-1.67421 0.491416 -0.429489 
-1.64837 0.731001 -0.34019 
-1.68195 0.652753 -0.354137 
-1.71738 0.652078 -0.33572 
-1.72763 0.574553 -0.363738 
-1.69325 0.742286 -0.315041 
-1.75716 0.78757 -0.306754 
-1.77581 0.661075 -0.333198 
-1.76812 0.573803 -0.359594 
-1.77018 0.476768 -0.375318 
-1.72267 0.488582 -0.371959 
-1.83221 0.797361 -0.305126 
-1.85047 0.690416 -0.339012 
-1.8138 0.576973 -0.36267 
-1.79546 0.479611 -0.377697 
-1.86857 0.686409 -0.370208 
-1.84579 0.564648 -0.379527 
-1.82815 0.470733 -0.396709 
-1.81494 0.927047 -0.404133 
0.509385 0.517291 -0.392288 
0.533445 0.624065 -0.391587 
0.550725 0.635517 -0.355498 
0.545686 0.698743 -0.399473 
0.560938 0.699523 -0.35701 
0.549429 0.829496 -0.399936 
0.563323 0.83699 -0.36148 
0.555798 0.907171 -0.424207 
0.566294 0.914995 -0.376516 
0.424256 0.507823 -0.402687 
0.412257 0.601623 -0.418543 
0.398407 0.495427 -0.39097 
0.416497 0.675089 -0.426059 
0.385099 0.598189 -0.407553 
0.415227 0.805586 -0.440491 
0.374563 0.683142 -0.42255 
0.385768 0.877725 -0.462205 
0.351675 0.797625 -0.432436 
0.38825 0.491993 -0.370041 
0.357557 0.600953 -0.386217 
0.332426 0.681035 -0.38903 
0.337909 0.878726 -0.444942 
0.32335 0.806005 -0.409752 
0.391578 0.507404 -0.346457 
0.364156 0.603871 -0.345103 
0.338941 0.686043 -0.344543 
0.310967 0.88026 -0.418167 
0.307996 0.801434 -0.35034 
0.432508 0.524847 -0.308838 
0.397794 0.616734 -0.304823 
0.382723 0.687868 -0.301847 
0.298272 0.90815 -0.30766 
0.362154 0.844157 -0.299682 
0.519594 0.517865 -0.36401 
0.512144 0.886744 -0.450519 
0.514242 0.827658 -0.437564 
0.479992 0.514462 -0.4103 
0.504046 0.684747 -0.439248 
0.452247 0.507968 -0.411618 
0.453921 0.905901 -0.478008 
0.460058 0.828751 -0.449087 
0.469041 0.673458 -0.437961 
0.459802 0.583277 -0.424868 
0.498637 0.597188 -0.423211 
0.417018 0.902274 -0.263214 
0.363539 0.89992 -0.272585 
0.425446 0.862759 -0.29062 
0.428682 0.691862 -0.279485 
0.516667 0.526244 -0.320811 
0.464383 0.511204 -0.29475 
0.505475 0.652144 -0.303218 
0.439847 0.620111 -0.282174 
0.523672 0.902869 -0.268032 
0.536341 0.832533 -0.285625 
0.515759 0.714673 -0.294419 
0.602189 1.059 -0.41279 
0.583802 1.04782 -0.463268 
0.589088 0.996277 -0.393095 
0.525231 1.06186 -0.506449 
0.571406 0.98165 -0.441417 
0.454045 1.04411 -0.511563 
0.528546 0.955603 -0.469082 
0.364344 1.04678 -0.501027 
0.452542 0.957251 -0.495676 
0.318394 1.0376 -0.477593 
0.369052 0.948321 -0.48265 
0.28901 1.02966 -0.449672 
0.326866 0.962726 -0.468891 
0.2526 1.0381 -0.370449 
0.299589 0.972786 -0.428359 
0.618132 1.10611 -0.427412 
0.605397 1.117 -0.467521 
0.550798 1.12953 -0.514715 
0.468896 1.12399 -0.527472 
0.383784 1.12389 -0.515288 
0.330265 1.1072 -0.501392 
0.292369 1.09718 -0.481917 
0.236135 1.10234 -0.401148 
0.63781 1.18124 -0.444921 
0.379076 1.17777 -0.520225 
0.481574 1.19742 -0.529905 
0.565561 1.19275 -0.510769 
0.609818 1.18192 -0.488786 
0.288159 1.1683 -0.497716 
0.335392 1.16866 -0.520501 
0.984735 2.47235 -0.0129634 
0.974274 2.47723 0.00212119 
1.08979 2.51719 0.00212077 
0.996751 2.44695 -0.0727462 
1.08386 2.51096 -0.0298071 
1.00645 2.38495 -0.12895 
1.0919 2.49648 -0.0632118 
1.01892 2.32309 -0.147252 
1.10253 2.42482 -0.127597 
1.03158 2.26111 -0.165489 
1.12951 2.37419 -0.147847 
1.05265 2.13662 -0.201728 
1.14701 2.30317 -0.174547 
1.06433 2.00328 -0.218337 
1.1894 2.20546 -0.198298 
1.10445 1.82841 -0.218033 
1.21366 2.07056 -0.213631 
1.12258 1.72081 -0.203187 
1.22731 1.91468 -0.197365 
1.13943 1.6762 -0.179797 
1.25387 1.81133 -0.170563 
1.1477 1.63575 -0.154526 
1.26337 1.78286 -0.157542 
1.17421 1.56684 -0.111172 
1.27814 1.75261 -0.133579 
1.20773 1.54952 -0.0805714 
1.28945 1.72041 -0.10401 
1.19498 1.54079 0.00212038 
1.3056 1.6834 -0.0758242 
1.30123 2.62082 -0.0640237 
1.18274 2.55172 -0.0431332 
1.18128 2.55975 0.00212043 
1.47733 1.88626 0.00211933 
1.39035 1.78472 0.00211966 
1.40197 1.79386 -0.0849802 
1.4748 1.8797 -0.0796335 
1.37288 1.81275 -0.106919 
1.36063 1.85038 -0.135395 
1.4679 1.89973 -0.130124 
1.35513 1.89614 -0.168562 
1.45161 1.95542 -0.174561 
1.34357 1.97928 -0.201323 
1.43989 2.06158 -0.216928 
1.31033 2.12558 -0.226511 
1.41646 2.17533 -0.235715 
1.26768 2.24848 -0.208861 
1.3713 2.28657 -0.220415 
1.24103 2.35311 -0.17949 
1.36951 2.38103 -0.207856 
1.21928 2.41839 -0.168196 
1.33993 2.47094 -0.193159 
1.19205 2.47528 -0.137829 
1.31495 2.57597 -0.140284 
1.18358 2.53049 -0.0773887 
1.30942 2.60212 -0.104525 
1.13155 1.43368 -0.0866367 
1.12849 1.43761 0.00212062 
0.689612 2.4001 0.00212225 
0.858843 2.44028 0.00212162 
0.855409 2.40915 -0.0718068 
0.699085 2.38201 -0.0871817 
0.865292 2.34704 -0.127939 
0.719309 2.32853 -0.148406 
0.88184 2.28153 -0.153409 
0.768705 2.25826 -0.184323 
0.899335 2.2105 -0.180109 
0.784063 2.16937 -0.223723 
0.916492 2.08547 -0.215925 
0.820911 2.05167 -0.254258 
0.957972 1.94856 -0.224923 
0.869611 1.91721 -0.269272 
1.00765 1.77835 -0.250988 
0.936086 1.72311 -0.284979 
0.897634 1.81003 -0.287685 
1.04081 1.67873 -0.235873 
0.9454 1.64066 -0.281082 
1.05396 1.61264 -0.199444 
0.960017 1.54696 -0.227321 
1.06869 1.53548 -0.165453 
1.10698 1.47067 -0.119688 
1.30327 1.68541 0.00211998 
0.83942 1.90627 -0.315513 
0.871912 1.77994 -0.312238 
0.888452 1.69987 -0.314495 
0.867875 1.54601 -0.314504 
0.888443 1.62278 -0.314156 
0.766563 2.03908 -0.295218 
0.752788 2.04302 -0.307517 
0.714631 2.15084 -0.26136 
0.779438 1.36167 -0.410997 
0.801973 1.41681 -0.430428 
0.844327 1.441 -0.359052 
0.807672 1.51145 -0.427325 
0.849616 1.51623 -0.348592 
0.826182 1.61714 -0.449621 
0.86355 1.62034 -0.379537 
0.834786 1.69413 -0.445023 
0.862373 1.69978 -0.390896 
0.811451 1.80061 -0.421387 
0.851547 1.77675 -0.372382 
0.79135 1.92886 -0.363927 
0.806258 1.92452 -0.337157 
0.779025 2.04403 -0.283784 
0.596398 2.39159 0.00212259 
0.598271 2.37723 -0.0773424 
0.620585 2.33238 -0.148533 
0.672754 2.21938 -0.23857 
0.648187 1.22222 -0.436829 
0.692466 1.27469 -0.444552 
0.570496 2.36489 -0.0916598 
0.582477 2.34314 -0.141938 
0.623599 2.25079 -0.225997 
0.657171 2.16451 -0.290281 
0.693014 2.0732 -0.332348 
0.715967 1.948 -0.401344 
0.737821 1.83681 -0.455149 
0.75827 1.71368 -0.496911 
0.760532 1.58781 -0.513706 
0.739417 1.49566 -0.499873 
0.733792 1.42895 -0.496576 
0.709464 1.34232 -0.45767 
0.545879 1.3113 -0.523099 
0.587923 1.44582 -0.553162 
0.455096 2.37755 -0.0761781 
0.449312 2.39129 0.00212313 
0.59998 1.52052 -0.56126 
0.602413 1.57887 -0.568979 
0.575925 1.72811 -0.553061 
0.550243 1.83659 -0.502341 
0.529305 1.96822 -0.446808 
0.521512 2.10148 -0.377772 
0.477955 2.24259 -0.276567 
0.461425 2.31657 -0.175855 
0.451186 2.35899 -0.112201 
-0.243122 2.3456 -0.0687302 
-0.238326 2.3659 0.00212567 
-0.0182335 2.37064 0.00212486 
-0.237092 2.30667 -0.125123 
-0.016431 2.3104 -0.122056 
-0.214298 2.26289 -0.187445 
-0.021699 2.25479 -0.201441 
-0.206968 2.1756 -0.275462 
-0.00637241 2.13444 -0.306685 
-0.234382 2.10316 -0.359335 
0.0362096 2.03745 -0.383157 
-0.202265 1.94942 -0.476709 
0.0644169 1.93635 -0.438391 
-0.104 1.75928 -0.550868 
0.0723291 1.77075 -0.52062 
-0.104048 1.6686 -0.580191 
0.0672642 1.6893 -0.541412 
-0.113865 1.59412 -0.595892 
0.0771559 1.62209 -0.551617 
-0.10262 1.52027 -0.601954 
0.0743524 1.55867 -0.559808 
-0.100641 1.43092 -0.598806 
0.0816081 1.46746 -0.54586 
-0.0989746 1.32421 -0.584731 
0.0878722 1.3717 -0.500555 
-0.109082 1.22289 -0.550568 
0.0765391 1.32176 -0.484072 
-0.101544 1.10375 -0.4814 
0.0726424 1.20884 -0.447418 
-0.107803 1.02295 -0.407759 
0.0799072 1.13135 -0.403888 
-0.104219 0.98232 -0.335056 
0.0685344 1.06699 -0.364277 
0.0650301 1.03194 -0.318922 
0.0606178 0.961836 -0.251862 
0.0607459 0.94233 -0.182817 
-0.588431 2.35006 -0.0799123 
-0.582939 2.37119 0.00212695 
-0.442611 2.36773 0.00212643 
-0.587514 2.32674 -0.117536 
-0.439353 2.34661 -0.0646124 
-0.617874 2.30212 -0.193214 
-0.459419 2.32047 -0.115385 
-0.605218 2.25989 -0.280455 
-0.451032 2.29318 -0.16941 
-0.639103 2.19085 -0.333357 
-0.420854 2.25181 -0.2379 
-0.743113 2.13404 -0.367157 
-0.426584 2.17874 -0.306477 
-0.768888 2.0005 -0.503138 
-0.520747 2.0463 -0.42594 
-0.673382 1.79638 -0.644697 
-0.392488 1.80532 -0.591294 
-0.626251 1.68227 -0.696259 
-0.339269 1.67533 -0.646862 
-0.578322 1.53957 -0.739418 
-0.333737 1.60451 -0.669317 
-0.576894 1.34657 -0.747873 
-0.326684 1.50404 -0.678023 
-0.564339 1.20042 -0.723276 
-0.337087 1.38182 -0.692724 
-0.556479 1.07713 -0.660866 
-0.332432 1.23652 -0.664182 
-0.572798 0.986433 -0.576667 
-0.360036 1.09903 -0.612885 
-0.573631 0.944234 -0.512626 
-0.373423 1.00948 -0.543325 
-0.373582 0.963961 -0.477212 
-0.877541 2.37779 -0.0567158 
-0.861632 2.39082 0.00212798 
-0.723509 2.37672 0.00212747 
-0.882853 2.35663 -0.119549 
-0.735852 2.3582 -0.0648361 
-0.911569 2.33345 -0.224462 
-0.762635 2.34273 -0.127043 
-0.931727 2.3146 -0.317654 
-0.79035 2.31199 -0.236778 
-0.960538 2.27904 -0.395849 
-0.802829 2.26847 -0.333356 
-1.02564 2.22039 -0.460806 
-0.833475 2.21702 -0.359169 
-1.02625 2.10077 -0.505262 
-0.905463 2.12872 -0.415249 
-0.982884 1.98897 -0.543974 
-0.871019 2.03472 -0.484258 
-0.96135 1.8562 -0.593928 
-0.847727 1.9594 -0.550733 
-0.993926 1.73361 -0.632656 
-0.835733 1.79016 -0.640129 
-0.998387 1.59257 -0.663932 
-0.816597 1.67598 -0.682623 
-0.956863 1.29525 -0.682566 
-0.806076 1.45225 -0.742953 
-0.948342 1.18502 -0.637758 
-0.816558 1.2199 -0.717778 
-0.959882 1.10608 -0.574916 
-0.809531 1.09989 -0.657427 
-0.962219 1.05839 -0.488464 
-0.783122 1.01437 -0.594439 
0.383061 1.22509 -0.530593 
0.381262 1.30589 -0.54748 
0.300402 2.39048 0.00212368 
0.302981 2.37267 -0.0959082 
0.312383 2.35156 -0.125173 
0.318245 2.31689 -0.17469 
0.321688 2.25718 -0.256182 
0.327057 2.19145 -0.324552 
0.355744 1.94315 -0.468741 
0.350666 2.01687 -0.433887 
0.376846 1.78849 -0.51467 
0.385199 1.70219 -0.532127 
0.390193 1.61179 -0.547128 
0.391868 1.51964 -0.556265 
0.398247 1.42249 -0.567043 
0.183754 1.0167 -0.297059 
0.24407 1.00699 -0.332333 
0.191918 0.959636 -0.252153 
0.226694 0.921489 0.00212396 
0.197586 0.927634 -0.189417 
0.365766 0.916904 0.00212344 
0.195713 1.06619 -0.360677 
0.210607 1.19381 -0.43941 
0.263619 1.35436 -0.485523 
0.248041 1.18636 -0.448076 
0.20054 1.12477 -0.392199 
0.0671428 0.916247 0.00212455 
-0.761592 0.968223 -0.513026 
-0.943831 2.38331 -0.0568963 
-0.937223 2.3998 0.00212826 
-0.957227 2.36311 -0.115851 
-0.9666 2.34212 -0.231176 
-0.987688 2.33293 -0.316194 
-1.03916 2.29423 -0.430902 
-1.1007 2.21653 -0.48863 
-1.10595 2.08102 -0.518685 
-1.13844 1.89292 -0.530997 
-1.13348 1.80266 -0.546081 
-1.13999 1.73002 -0.567513 
-1.13303 1.61799 -0.602293 
-1.13643 1.4787 -0.615588 
-1.15186 1.36483 -0.569096 
-1.12764 1.26347 -0.515216 
-1.11647 1.18653 -0.472109 
-1.08398 2.39188 -0.0514297 
-1.08073 2.40856 0.00212879 
-1.09745 2.37376 -0.107011 
-1.11081 2.36799 -0.189099 
-1.19236 2.31612 -0.353337 
-1.22162 2.21504 -0.466938 
-1.21469 2.10314 -0.501806 
-1.22936 1.96062 -0.508696 
-1.23664 1.84464 -0.52233 
-1.23266 1.78485 -0.542131 
-1.19376 1.70594 -0.572949 
-1.17811 1.61993 -0.599931 
-1.20153 1.48177 -0.604881 
-1.23817 1.37138 -0.561069 
-1.24551 1.27018 -0.489009 
-1.24255 1.21717 -0.451413 
-1.23806 1.2021 -0.42291 
-1.25842 2.40454 -0.05887 
-1.24862 2.41492 0.00212941 
-1.26749 2.39229 -0.0989264 
-1.28396 2.37607 -0.188803 
-1.29922 2.31869 -0.352864 
-1.31405 2.20099 -0.474678 
-1.35384 2.07174 -0.514121 
-1.35481 1.94193 -0.528553 
-1.33631 1.84451 -0.543726 
-1.29316 1.77143 -0.559005 
-1.25437 1.69483 -0.586401 
-1.25189 1.61153 -0.620238 
-1.30604 1.43774 -0.618047 
-1.34515 1.29917 -0.556831 
-1.35208 1.19157 -0.495166 
-1.35529 1.15122 -0.458381 
-1.35851 1.11087 -0.421595 
-1.51996 2.44304 -0.0274789 
-1.5008 2.44881 0.00213034 
-1.53074 2.42813 -0.094319 
-1.53327 2.40792 -0.172047 
-1.53862 2.37324 -0.264405 
-1.53961 2.29832 -0.384006 
-1.52526 2.15956 -0.487385 
-1.4756 1.97154 -0.549849 
-1.45966 1.8927 -0.55755 
-1.45297 1.84967 -0.559296 
-1.43217 1.7359 -0.578286 
-1.41437 1.63773 -0.602341 
-1.40615 1.55547 -0.612969 
-1.39213 1.41923 -0.604007 
-1.4131 1.24076 -0.550863 
-1.47316 1.06929 -0.51234 
-1.68755 2.47112 -0.0203944 
-1.68069 2.48554 0.002131 
-1.69838 2.42805 -0.0936879 
-1.69734 2.41698 -0.15795 
-1.71221 2.39207 -0.247068 
-1.7019 2.33382 -0.343676 
-1.6769 2.2475 -0.412813 
-1.63343 2.08972 -0.494169 
-1.58737 1.93646 -0.530827 
-1.57185 1.8099 -0.537541 
-1.57026 1.71984 -0.543306 
-1.52618 1.63709 -0.566762 
-1.50957 1.49669 -0.588398 
-1.49508 1.37783 -0.590377 
-1.49878 1.21172 -0.553812 
-1.54326 1.06772 -0.522602 
-1.89324 2.34611 -0.137662 
-1.88793 2.35272 0.00213177 
-1.83729 2.3832 0.00213158 
-1.89652 2.30128 -0.223863 
-1.82218 2.40123 -0.16542 
-1.89028 2.24156 -0.267375 
-1.83843 2.36423 -0.242417 
-1.87407 2.17092 -0.308538 
-1.81347 2.30807 -0.301869 
-1.85905 2.09055 -0.334176 
-1.78673 2.23467 -0.374304 
-1.83127 1.94175 -0.388426 
-1.77204 2.13025 -0.399426 
-1.79942 1.77063 -0.433222 
-1.75073 1.95482 -0.432469 
-1.77487 1.68042 -0.462237 
-1.71376 1.80486 -0.47607 
-1.73477 1.59494 -0.488769 
-1.68382 1.70213 -0.511383 
-1.70872 1.44686 -0.510272 
-1.6516 1.61737 -0.533882 
-1.70658 1.30874 -0.500429 
-1.62319 1.45091 -0.562795 
-1.71795 1.16301 -0.467337 
-1.62058 1.33016 -0.563897 
-1.73036 1.04801 -0.43913 
-1.63666 1.16122 -0.535398 
-1.74744 0.982462 -0.422639 
-1.65651 1.04578 -0.497572 
-1.98814 2.30388 -0.127995 
-1.9686 2.30946 0.00213207 
-1.97182 2.24978 -0.188929 
-1.96594 2.19865 -0.218904 
-1.95294 2.12823 -0.250757 
-1.94621 2.05075 -0.269055 
-1.92108 1.92699 -0.305461 
-1.88655 1.78203 -0.371266 
-1.85116 1.67318 -0.402656 
-1.82522 1.55324 -0.417696 
-1.79215 1.41623 -0.431693 
-1.767 1.30183 -0.445517 
-1.7691 1.17153 -0.421766 
-1.78648 1.08426 -0.401343 
-1.97701 2.19887 -0.0912052 
-1.97703 2.22821 0.0021321 
-1.97343 2.16424 -0.117094 
-1.97089 2.11326 -0.13753 
-1.96056 2.06355 -0.15876 
-1.957 2.01446 -0.161299 
-1.94243 1.91226 -0.183132 
-1.91558 1.77321 -0.229065 
-1.89345 1.66503 -0.270536 
-1.86615 1.54773 -0.320414 
-1.84339 1.45185 -0.326916 
-1.7892 1.28103 -0.347829 
-1.42736 1.02777 -0.42387 
-1.48401 0.937248 -0.388195 
0.558519 2.38663 0.00212273 
-1.58109 0.810576 -0.312053 
-1.80535 0.356845 -0.466851 
-1.77956 0.359688 -0.477568 
-1.76257 0.280029 -0.494301 
-1.72633 0.375461 -0.452927 
-1.68762 0.384444 -0.457639 
-1.65812 0.310009 -0.47733 
-1.67138 0.384365 -0.423988 
-1.64057 0.307558 -0.432659 
-1.79746 0.272915 -0.495328 
-1.79721 0.24785 -0.489315 
-1.76451 0.218369 -0.484511 
-1.80369 0.206348 -0.492119 
-1.61333 0.252646 -0.435934 
-1.62404 0.243574 -0.477978 
-1.74221 0.289934 -0.499988 
-1.75077 0.374191 -0.458706 
-1.80979 0.19918 -0.416665 
-1.79392 0.207538 -0.369393 
-1.77732 0.266651 -0.372422 
-1.79655 0.370858 -0.385332 
-1.81386 0.348329 -0.423855 
-1.81136 0.254952 -0.427549 
-1.67792 0.238523 -0.48556 
-1.71136 0.303816 -0.479336 
-1.71778 0.227776 -0.498833 
-1.73888 0.221181 -0.495214 
-1.66785 0.325001 -0.396644 
-1.63271 0.248683 -0.405518 
-1.73775 0.279593 -0.355856 
-1.69492 0.312218 -0.37046 
-1.72471 0.379357 -0.369966 
-1.74561 0.383056 -0.372616 
-1.68179 0.377396 -0.401039 
-1.77488 1.18526 -0.359277 
-1.91901 1.97252 -0.125042 
-1.90948 1.91396 -0.121573 
-1.90071 1.79821 -0.139809 
-1.89198 1.66893 -0.187575 
-1.87167 1.56877 -0.238727 
-1.92821 1.95422 0.00213192 
-1.92935 2.17324 0.00213192 
-1.93241 2.11616 0.00213193 
-1.93846 2.04643 0.00213196 
-2.05529 2.04576 -0.0232759 
-2.03639 1.82284 -0.021288 
-2.04176 1.82224 0.00213234 
-2.0436 2.25552 -0.0252597 
-2.06112 2.04516 0.00213241 
-1.97224 2.39139 -0.0272435 
-2.04991 2.25581 0.00213237 
-1.8712 2.4679 -0.0292276 
-1.97836 2.39428 0.0021321 
-1.76916 2.48725 -0.0312116 
-1.87503 2.47403 0.00213172 
-2.03937 2.0474 -0.0418738 
-2.02173 1.8245 -0.0384355 
-2.02636 2.25476 -0.0453122 
-1.95549 2.3835 -0.0487508 
-1.8607 2.45115 -0.0521894 
-1.76443 2.468 -0.0556281 
-2.01761 2.04964 -0.0486889 
-2.00169 1.82677 -0.0447172 
-2.0028 2.25372 -0.0526606 
-1.93261 2.37272 -0.0566282 
-1.84637 2.42827 -0.0606002 
-1.99584 2.05188 -0.0418916 
-1.98165 1.82903 -0.0384489 
-1.97923 2.25267 -0.04533 
-1.90972 2.36194 -0.0487686 
-1.83202 2.40539 -0.0522072 
-1.97989 2.05352 -0.0232983 
-1.96697 1.83069 -0.0213146 
-1.96197 2.2519 -0.0252864 
-1.89296 2.35404 -0.0272747 
-1.82152 2.38863 -0.029263 
-1.97405 2.05413 0.00210123 
-1.96158 1.8313 0.00210559 
-1.95564 2.25162 0.00210116 
-1.81766 2.38249 0.00209184 
-1.77088 2.4943 0.00213134 
1.80134 2.42054 -0.270343 
1.79308 2.49427 -0.279133 
1.83408 2.50764 -0.250401 
1.8587 2.4892 -0.228519 
1.83797 2.41463 -0.251512 
1.85869 2.41623 -0.227439 
1.82179 2.39496 -0.257026 
1.79736 2.40381 -0.26374 
1.84627 2.38928 -0.24188 
1.85486 2.3995 -0.220835 
1.86738 2.43002 -0.20207 
1.84689 2.50848 -0.218243 
1.87119 2.47524 -0.209903 
1.78564 2.52418 -0.251824 
1.81014 2.52656 -0.235898 
1.75695 2.43257 -0.268152 
1.7691 2.49723 -0.266168 
1.77343 2.53697 -0.258441 
1.80615 2.55507 -0.237194 
1.83055 2.55388 -0.225596 
1.8264 2.52221 -0.232706 
1.86341 2.53148 -0.204283 
1.88769 2.48608 -0.197115 
1.89584 2.44123 -0.193509 
1.87569 2.40879 -0.192192 
1.85877 2.37944 -0.222868 
1.83416 2.36923 -0.243537 
1.80555 2.3708 -0.258988 
1.78131 2.39576 -0.264145 
1.90438 2.46778 -0.174877 
1.90017 2.43572 -0.177878 
1.88799 2.3915 -0.181872 
1.87109 2.37022 -0.211922 
1.82619 2.34446 -0.237771 
1.80179 2.34563 -0.249215 
1.75317 2.36294 -0.258534 
1.72904 2.38263 -0.25208 
1.87585 2.52992 -0.188458 
1.89197 2.49708 -0.184032 
1.83499 2.56472 -0.212531 
1.77762 2.54819 -0.249316 
1.75281 2.50235 -0.277414 
1.74287 2.5008 -0.268677 
1.74877 2.43295 -0.271912 
1.72486 2.50531 -0.26436 
1.79063 2.58876 -0.209176 
1.81026 2.57062 -0.23164 
1.81555 2.58208 -0.182013 
1.86057 2.55045 -0.149755 
1.88916 2.50838 -0.134234 
1.90513 2.46468 -0.142816 
1.90889 2.42495 -0.150892 
1.72879 2.42429 -0.264154 
1.74748 2.61675 -0.160978 
1.78868 2.60068 -0.12298 
1.84973 2.54953 -0.0969675 
1.89415 2.5041 -0.090113 
1.91839 2.45964 -0.090986 
1.92965 2.41022 -0.124412 
1.92104 2.35948 -0.145228 
1.90793 2.3193 -0.189317 
1.85477 2.26582 -0.221642 
1.83029 2.25871 -0.229894 
1.77348 2.25263 -0.249418 
1.737 2.26543 -0.255466 
1.69281 2.32602 -0.252568 
1.66871 2.39016 -0.245806 
1.65653 2.48002 -0.253102 
1.66463 2.41511 -0.251431 
1.74951 2.56392 -0.242999 
1.66896 2.54352 -0.239115 
1.88425 2.4993 0.00214869 
1.93139 2.4597 -0.0507753 
1.9588 2.39827 -0.0857404 
1.95793 2.3247 -0.121221 
1.96513 2.2391 -0.157892 
1.72089 2.23732 -0.257811 
1.68446 2.27019 -0.261918 
1.6684 2.31032 -0.257664 
1.63214 2.34727 -0.261226 
1.62416 2.3874 -0.257162 
1.61223 2.43147 -0.252621 
1.75126 2.61718 0.00199489 
1.70144 2.64758 -0.0596479 
1.70215 2.60097 -0.205944 
1.62975 2.62819 -0.193495 
1.67613 2.65658 -0.110817 
1.59322 2.56881 -0.206526 
1.61241 2.49576 -0.246406 
1.96072 2.20781 -0.168948 
1.93213 2.14843 -0.182159 
1.84266 2.14841 -0.220593 
1.75725 2.20408 -0.249748 
2.0039 2.39475 -0.050608 
1.94062 2.45503 0.00221019 
2.0291 2.3828 0.00231125 
2.04938 2.36195 0.00233763 
2.04828 2.34617 -0.052345 
2.03126 2.31721 -0.0871248 
2.02682 2.2826 -0.106636 
2.00972 2.22158 -0.144514 
1.99325 2.18619 -0.155684 
1.97724 2.12524 -0.153074 
1.97276 2.09829 -0.167696 
1.85869 2.11595 -0.220117 
1.74493 2.14428 -0.25923 
1.70433 2.16987 -0.272079 
1.65174 2.21962 -0.282156 
1.61152 2.28022 -0.279511 
1.59971 2.33606 -0.26969 
1.59185 2.38387 -0.2609 
2.12189 2.29701 0.00242111 
2.12898 2.28478 -0.0480342 
2.11199 2.26388 -0.0820382 
2.09517 2.23809 -0.108381 
2.07037 2.19622 -0.136254 
2.05003 2.16059 -0.143214 
2.03777 2.12086 -0.150756 
2.03358 2.0967 -0.152996 
2.18933 2.24857 -0.0529362 
2.18432 2.23611 -0.0903875 
2.16438 2.24339 -0.0810862 
2.17539 2.20304 -0.125749 
2.13078 2.18418 -0.138819 
2.14763 2.218 -0.111537 
2.16285 2.16859 -0.145057 
2.11063 2.14778 -0.137726 
2.15865 2.11668 -0.153965 
2.11836 2.12082 -0.15263 
2.16519 2.2643 -0.0467118 
2.07377 2.09312 -0.158422 
2.2657 2.21252 -0.0581953 
2.25327 2.21407 -0.0738617 
2.22082 2.22725 -0.0839561 
2.2869 2.17973 0.00253643 
2.29405 2.18756 -0.0531349 
2.27732 2.18989 -0.0767623 
2.23065 2.23638 0.00253664 
2.23355 2.2326 -0.0555063 
2.28708 2.1465 0.00253643 
2.27103 2.10189 0.00253649 
2.28626 2.09298 -0.0376977 
2.26295 2.07355 0.00253652 
2.27432 2.06821 -0.0318437 
2.26957 2.0552 -0.0653629 
2.28141 2.08052 -0.075312 
2.24045 2.04274 -0.102254 
2.19528 2.04589 -0.133437 
2.1991 2.07144 -0.147159 
2.2524 2.07148 -0.107883 
2.21533 2.0787 -0.1387 
2.16656 2.08502 -0.161358 
2.16257 2.06828 -0.15475 
2.12607 2.08582 -0.168472 
2.06986 2.04828 -0.154534 
2.11811 2.06498 -0.162173 
2.15874 2.04745 -0.148543 
2.11833 2.04376 -0.15211 
2.09826 2.03532 -0.148314 
2.04984 2.05991 -0.148958 
2.05392 2.03101 -0.143712 
2.07422 2.01822 -0.13729 
2.02961 2.06425 -0.152057 
2.02575 2.03536 -0.146626 
2.02705 1.99353 -0.0899416 
2.10318 2.00705 -0.106666 
2.08784 1.9839 -0.0761753 
2.14374 2.00192 -0.0959856 
2.12831 1.97915 -0.0694443 
2.19234 2.00901 -0.0882936 
2.17295 1.97757 -0.0543643 
1.96878 2.0619 -0.16714 
1.96089 2.03261 -0.157509 
1.99415 2.00394 -0.112572 
1.94943 2.00985 -0.131214 
2.20653 1.99613 0.00253673 
2.21385 1.99117 -0.0297584 
2.23765 2.01276 -0.0443273 
2.16194 1.97331 0.0025369 
2.11305 1.97117 -0.0293525 
2.11769 1.97255 0.00253706 
2.06034 1.97685 -0.0436875 
1.95644 1.98092 0.00236883 
1.91197 1.97383 0.00232932 
1.92277 1.9667 -0.0617293 
2.01966 1.97843 -0.0588556 
1.9789 1.98039 -0.0779734 
2.00484 1.98501 0.00240832 
1.97157 1.9773 -0.0457325 
2.06938 1.97296 0.00253724 
1.93011 1.96981 -0.0941333 
1.82746 1.96133 0.0022591 
1.84626 1.95474 -0.0611119 
1.86089 1.96055 -0.121649 
1.71674 1.92864 -0.0808863 
1.71047 1.93739 0.00216255 
1.86438 2.00378 -0.150081 
1.73542 1.9429 -0.144844 
1.87171 2.02259 -0.176662 
1.86723 2.07349 -0.20002 
1.74916 2.07016 -0.246244 
1.74988 2.02243 -0.214355 
1.7428 1.9906 -0.176763 
1.67187 2.11009 -0.281093 
1.64026 2.05488 -0.253327 
1.60512 2.00935 -0.200143 
1.59769 1.97814 -0.170617 
1.55284 2.00505 -0.19536 
1.58943 1.91383 0.00206161 
1.5798 1.912 -0.0713421 
1.5625 1.92548 -0.12625 
1.51691 1.97896 -0.176793 
1.58325 2.10186 -0.275848 
1.48377 2.04792 -0.217996 
1.54373 2.07833 -0.240688 
1.56854 2.02253 -0.21014 
1.49887 2.19849 -0.268534 
1.53074 2.21203 -0.284232 
1.56682 2.24895 -0.289473 
1.61946 2.15908 -0.283275 
1.55916 2.3453 -0.279974 
1.58776 2.42832 -0.26049 
1.55537 2.39667 -0.266948 
1.51931 2.33533 -0.259762 
1.47492 2.31491 -0.256721 
1.45925 2.1714 -0.237862 
1.52738 2.3835 -0.255293 
1.48716 2.37904 -0.250805 
1.45132 2.2965 -0.233714 
1.82369 2.55656 0.00207838 
2.1903 2.25686 0.00253679 
2.26297 2.21552 0.00253652 
1.56155 2.74447 0.00178841 
1.6221 2.71554 0.00185431 
1.62095 2.7161 -0.0552968 
1.57244 2.74106 -0.0597356 
1.61555 2.70992 -0.11653 
1.56792 2.7434 -0.0838039 
1.61103 2.7034 -0.133161 
1.50525 2.7524 0.00174013 
1.50407 2.74504 -0.0577605 
1.51116 2.74459 -0.0944889 
1.57123 2.74611 -0.112003 
1.51483 2.75047 -0.11426 
1.56638 2.73348 -0.149472 
1.60264 2.70534 -0.153033 
1.65433 2.69096 0.00188946 
1.63061 2.66932 -0.157168 
1.46048 2.71008 -0.197917 
1.45614 2.6664 -0.206027 
1.44084 2.65525 -0.174376 
1.44939 2.70954 -0.149074 
1.43729 2.66099 -0.149501 
1.45878 2.73656 -0.0940523 
1.45673 2.73686 0.00170064 
1.46639 2.73044 -0.115075 
1.46601 2.732 -0.131182 
1.47327 2.73547 -0.167373 
1.42158 2.67184 -0.135964 
1.43432 2.71372 -0.107809 
1.44589 2.7076 -0.128924 
1.41633 2.70071 0.00167434 
1.34571 2.64027 -0.100739 
1.40474 2.63816 -0.163074 
1.36447 2.61363 -0.160522 
1.43271 2.64325 -0.17535 
1.45572 2.6194 -0.222844 
1.40702 2.60858 -0.234878 
1.37917 2.59132 -0.223782 
1.3589 2.54727 -0.227573 
1.34366 2.54734 -0.186706 
1.47175 2.63216 -0.229955 
1.47104 2.61087 -0.260384 
1.42631 2.60399 -0.272131 
1.39017 2.58358 -0.269278 
1.37409 2.55074 -0.263949 
1.48592 2.60746 -0.309697 
1.44125 2.59704 -0.325936 
1.41745 2.57543 -0.311208 
1.39749 2.54222 -0.301837 
1.55235 2.59966 -0.230982 
1.51541 2.61851 -0.256686 
1.51501 2.60805 -0.273798 
1.52263 2.60588 -0.294437 
1.49742 2.61861 -0.341259 
1.45641 2.60129 -0.370371 
1.43242 2.56768 -0.356797 
1.54187 2.62175 -0.333854 
1.51649 2.63936 -0.388334 
1.46776 2.61638 -0.401545 
1.44785 2.57078 -0.389386 
1.46663 2.61709 -0.450091 
1.4901 2.65619 -0.479229 
1.46445 2.64647 -0.544482 
1.50715 2.66487 -0.442426 
1.5569 2.64686 -0.38456 
1.5389 2.67074 -0.462848 
1.52227 2.67663 -0.482143 
1.49667 2.68695 -0.545302 
1.46302 2.67273 -0.606654 
1.44723 2.61419 -0.587707 
1.44211 2.63534 -0.638171 
1.44243 2.57621 -0.445352 
1.44885 2.58713 -0.517323 
1.41687 2.53725 -0.33514 
1.43149 2.53911 -0.396056 
1.43048 2.54732 -0.439731 
1.43249 2.53185 -0.530424 
1.45811 2.56236 -0.637467 
1.46707 2.50187 -0.599033 
1.48861 2.42702 -0.537874 
1.43782 2.48142 -0.470676 
1.47791 2.40921 -0.47859 
1.40682 2.47133 -0.240013 
1.414 2.47931 -0.279915 
1.46302 2.43606 -0.252864 
1.44793 2.42336 -0.205101 
1.43542 2.47087 -0.402747 
1.42925 2.48318 -0.320399 
1.48778 2.40577 -0.402127 
1.56029 2.54753 -0.236205 
1.5726 2.53436 -0.225644 
1.55616 2.51098 -0.235659 
1.48718 2.65622 -0.604825 
1.46637 2.62254 -0.631838 
1.49621 2.61988 -0.563895 
1.48329 2.61533 -0.600558 
1.4788 2.62098 -0.616013 
1.48402 2.60828 -0.568881 
1.50866 2.65883 -0.5483 
1.5086 2.63877 -0.550235 
1.4874 2.63499 -0.594602 
1.50939 2.61916 -0.515631 
1.53937 2.53864 -0.268953 
1.5427 2.58186 -0.297227 
1.57776 2.53026 -0.351667 
1.58947 2.57643 -0.36773 
1.58452 2.61632 -0.40426 
1.55518 2.63788 -0.458268 
1.52991 2.65021 -0.500983 
1.51783 2.64216 -0.501481 
1.54293 2.62588 -0.459146 
1.55225 2.59233 -0.405834 
1.54895 2.56112 -0.376401 
1.5149 2.60939 -0.455945 
1.5441 2.47458 -0.234751 
1.54953 2.53439 -0.350614 
1.51974 2.58545 -0.417864 
1.50864 2.55719 -0.375846 
1.48905 2.52226 -0.350384 
1.48813 2.53025 -0.390097 
1.48715 2.55047 -0.432772 
1.48966 2.56883 -0.495799 
1.48878 2.58867 -0.53437 
1.47969 2.50724 -0.404247 
1.47443 2.51268 -0.460371 
1.47714 2.53818 -0.514741 
1.48024 2.56211 -0.553003 
1.49172 2.46278 -0.404838 
1.48221 2.46055 -0.46559 
1.48492 2.49092 -0.527467 
1.47588 2.52315 -0.568793 
1.4712 2.57087 -0.60043 
1.47087 2.58838 -0.614994 
1.55579 2.44367 -0.250131 
1.52395 2.44215 -0.233433 
1.54553 2.50944 -0.344799 
1.57799 2.51315 -0.341207 
1.52963 2.48863 -0.338469 
1.45541 2.37317 -0.230381 
1.29651 2.63624 0.00212 
1.3278 2.65948 0.00160855 
1.38734 2.47273 -0.211039 
0.720809 1.2603 0.372888 
0.66883 1.21893 0.391093 
0.641014 1.16565 0.382468 
0.777598 1.28243 0.332942 
0.71946 1.17347 0.357014 
0.821001 1.26462 0.282936 
0.76932 1.18236 0.32808 
0.766565 1.12818 0.313603 
0.834939 1.193 0.247728 
0.710274 1.11127 0.337742 
0.619268 1.10488 0.364386 
0.696088 1.07703 0.326202 
0.680439 1.0328 0.299167 
0.609583 1.07003 0.347692 
0.660933 0.971349 0.252225 
0.595561 1.01689 0.319952 
0.754385 1.04123 0.278872 
0.782064 1.01467 0.238026 
0.74139 0.985688 0.240102 
0.812321 1.05858 0.231449 
0.765097 1.09244 0.301018 
0.853206 1.23733 0.236849 
0.874026 1.11837 0.210044 
0.917984 1.19301 0.174566 
0.835371 1.11467 0.241932 
0.894211 1.04965 0.195343 
0.913443 1.11668 0.17946 
0.866506 1.0129 0.206482 
0.832184 0.968263 0.212896 
0.767072 0.938914 0.215157 
0.726068 0.937217 0.219957 
0.649971 0.945244 0.236312 
0.575002 0.953765 0.290854 
0.949334 1.11506 0.139676 
0.963145 1.18808 0.127637 
0.933601 1.02924 0.148492 
0.9033 0.982911 0.158614 
0.8578 0.933029 0.161863 
0.78027 0.900903 0.172411 
0.714743 0.900929 0.174025 
0.647251 0.904658 0.192173 
0.56116 0.905893 0.247139 
0.908184 1.50137 0.256862 
0.864438 1.45062 0.29277 
0.928299 1.38586 0.232211 
0.974734 1.42097 0.191211 
0.941391 1.32181 0.192194 
0.90382 1.35305 0.245714 
0.843249 1.37512 0.298779 
0.825281 1.33367 0.297236 
0.812471 1.3612 0.357191 
0.977674 1.29096 0.153143 
1.00088 1.2648 0.117499 
1.02813 1.29864 0.118759 
1.00416 1.33449 0.146235 
-0.369484 0.905434 0.383463 
-0.577603 0.890901 0.40792 
-0.528114 0.831299 0.365099 
-0.383202 0.823412 0.247622 
-0.376299 0.859039 0.354876 
-0.12579 0.931032 0.298522 
-0.39137 0.806882 0.171098 
-0.130013 0.884055 0.179313 
0.439154 0.382628 0.419174 
0.415747 0.379789 0.408462 
0.42291 0.295855 0.436939 
0.522568 0.407389 0.399245 
0.487445 0.398405 0.394533 
0.501035 0.32676 0.420946 
0.537304 0.407305 0.365593 
0.549334 0.332949 0.418936 
0.423135 0.270795 0.430922 
0.45456 0.302969 0.435907 
0.417259 0.229288 0.433725 
0.452806 0.241309 0.426117 
0.456954 0.221023 0.413444 
0.589985 0.275591 0.37754 
0.56526 0.330502 0.374264 
0.465272 0.397135 0.400312 
0.473035 0.312879 0.441598 
0.410297 0.277892 0.369155 
0.411717 0.22212 0.358272 
0.426122 0.230482 0.310999 
0.408023 0.371273 0.365461 
0.423729 0.393798 0.326943 
0.441185 0.289591 0.314032 
0.531371 0.261463 0.42717 
0.580266 0.266514 0.419584 
0.495207 0.250715 0.440439 
0.476059 0.244126 0.43682 
0.540508 0.347941 0.33825 
0.477085 0.302537 0.297462 
0.515951 0.335162 0.312066 
0.539076 0.263199 0.319004 
0.572397 0.271623 0.347124 
0.48892 0.402297 0.311572 
0.469952 0.406 0.314221 
-1.59235 0.813428 0.408365 
-1.54696 0.845956 0.332554 
-1.484 0.937248 0.392455 
-1.62812 0.763859 0.444996 
-1.52623 0.924482 0.437674 
-1.66895 0.772539 0.479754 
-1.56058 0.915066 0.480107 
-1.71592 0.780301 0.490563 
-1.60356 0.921356 0.494578 
-1.76667 0.794667 0.481658 
-1.64432 0.943423 0.499723 
-1.88389 0.826503 0.338237 
-1.88036 0.827234 0.400228 
-1.82547 0.948568 0.393607 
-1.80511 1.00153 0.392695 
-1.81222 1.00124 0.321539 
-1.83484 0.948188 0.298736 
-1.74252 0.598564 0.463916 
-1.73576 0.476367 0.46869 
-1.69883 0.477425 0.463585 
-1.73885 0.673118 0.476796 
-1.69431 0.606926 0.458401 
-1.68528 0.673299 0.470933 
-1.75558 0.676129 0.474402 
-1.78836 0.587151 0.443771 
-1.77502 0.472986 0.453358 
-1.80851 0.688242 0.445292 
-1.82194 0.804586 0.432196 
-1.83578 0.5869 0.421057 
-1.81723 0.468763 0.423199 
-1.86337 0.687541 0.412954 
-1.6742 0.491416 0.433751 
-1.66743 0.602293 0.436012 
-1.65077 0.678452 0.435377 
-1.61672 0.743308 0.389216 
-1.65584 0.658712 0.380501 
-1.67763 0.584436 0.391953 
-1.68468 0.496424 0.3992 
-1.68194 0.652753 0.358399 
-1.64836 0.731001 0.344451 
-1.71737 0.652078 0.339982 
-1.69324 0.742286 0.319303 
-1.7758 0.661075 0.33746 
-1.75715 0.78757 0.311016 
-1.76811 0.573803 0.363856 
-1.77017 0.476768 0.37958 
-1.72762 0.574553 0.368 
-1.7985 0.9058 0.285772 
-1.72558 0.859387 0.283611 
-1.8322 0.797361 0.30939 
-1.85046 0.690416 0.343275 
-1.81379 0.576973 0.366934 
-1.79545 0.479611 0.38196 
-1.86856 0.686409 0.374472 
-1.84578 0.564648 0.38379 
-1.82814 0.470733 0.400973 
0.533448 0.624065 0.395833 
0.509387 0.517291 0.396534 
0.519596 0.517865 0.368256 
0.545689 0.698743 0.403719 
0.550727 0.635517 0.359744 
0.549432 0.829496 0.404182 
0.56094 0.699523 0.361256 
0.555801 0.907171 0.428453 
0.563325 0.83699 0.365726 
0.424259 0.507823 0.406933 
0.39841 0.495427 0.395216 
0.41226 0.601623 0.422789 
0.385102 0.598189 0.411799 
0.416501 0.675089 0.430304 
0.374566 0.683142 0.426796 
0.415231 0.805586 0.444737 
0.351679 0.797625 0.436684 
0.385772 0.877725 0.466451 
0.337913 0.878726 0.44919 
0.35756 0.600953 0.390465 
0.332428 0.681035 0.393277 
0.323353 0.806005 0.414 
0.31097 0.88026 0.422415 
0.388252 0.491993 0.374286 
0.364158 0.603871 0.349351 
0.338943 0.686043 0.348791 
0.307998 0.801434 0.354587 
0.298274 0.90815 0.311908 
0.39158 0.507404 0.350703 
0.397796 0.616734 0.309068 
0.382725 0.687868 0.306093 
0.362156 0.844157 0.303929 
0.363541 0.89992 0.276833 
0.479995 0.514462 0.414546 
0.512148 0.886744 0.454765 
0.514246 0.827658 0.44181 
0.50405 0.684747 0.443494 
0.498641 0.597188 0.427457 
0.45225 0.507968 0.415864 
0.453925 0.905901 0.482254 
0.460062 0.828751 0.453333 
0.469045 0.673458 0.442206 
0.459806 0.583277 0.429114 
0.43251 0.524847 0.313084 
0.41702 0.902274 0.26746 
0.425448 0.862759 0.294865 
0.428684 0.691862 0.283731 
0.439849 0.620111 0.28642 
0.527857 0.40034 0.342649 
0.464385 0.511204 0.298996 
0.516669 0.526244 0.325057 
0.523674 0.902869 0.272278 
0.536343 0.832533 0.289871 
0.515761 0.714673 0.298665 
0.566296 0.914995 0.380762 
0.505477 0.652144 0.307464 
0.602192 1.059 0.417036 
0.589091 0.996277 0.397341 
0.583806 1.04782 0.467513 
0.57141 0.98165 0.445662 
0.525235 1.06186 0.510695 
0.52855 0.955603 0.473328 
0.454049 1.04411 0.515809 
0.452546 0.957251 0.499922 
0.364348 1.04678 0.505274 
0.369056 0.948321 0.486897 
0.318398 1.0376 0.481841 
0.32687 0.962726 0.473139 
0.289014 1.02966 0.45392 
0.299593 0.972786 0.432607 
0.252602 1.0381 0.374697 
0.244072 1.00699 0.33658 
0.618136 1.10611 0.431658 
0.605401 1.117 0.471767 
0.550802 1.12953 0.51896 
0.4689 1.12399 0.531718 
0.383788 1.12389 0.519533 
0.330269 1.1072 0.50564 
0.292373 1.09718 0.486165 
0.236138 1.10234 0.405395 
0.637814 1.18124 0.449167 
0.37908 1.17777 0.52447 
0.481578 1.19742 0.534151 
0.565565 1.19275 0.515015 
0.609822 1.18192 0.493032 
0.288163 1.1683 0.501964 
0.248045 1.18636 0.452324 
0.335396 1.16866 0.524749 
0.984735 2.47235 0.0172057 
1.08387 2.51096 0.0340487 
0.996751 2.44695 0.0769884 
1.09191 2.49648 0.0674534 
1.00646 2.38495 0.133192 
1.10254 2.42482 0.131838 
1.01893 2.32309 0.151494 
1.12952 2.37419 0.152089 
1.03159 2.26111 0.16973 
1.14702 2.30317 0.178789 
1.05266 2.13662 0.20597 
1.18941 2.20546 0.20254 
1.06434 2.00328 0.222579 
1.21367 2.07056 0.21787 
1.10446 1.82841 0.222275 
1.22732 1.91468 0.201604 
1.12259 1.72081 0.207429 
1.25388 1.81133 0.174803 
1.13944 1.6762 0.184039 
1.26338 1.78286 0.161782 
1.14771 1.63575 0.158768 
1.27815 1.75261 0.137819 
1.17422 1.56684 0.115414 
1.28946 1.72041 0.10825 
1.20774 1.54952 0.084812 
1.30561 1.6834 0.0800642 
1.18275 2.55172 0.047374 
1.30124 2.62082 0.0682637 
1.47481 1.8797 0.0838721 
1.37289 1.81275 0.111159 
1.40198 1.79386 0.0892194 
1.46791 1.89973 0.134362 
1.36064 1.85038 0.139635 
1.45162 1.95542 0.178801 
1.35514 1.89614 0.172802 
1.4399 2.06158 0.221168 
1.34358 1.97928 0.205563 
1.41647 2.17533 0.239955 
1.31034 2.12558 0.230751 
1.37131 2.28657 0.224655 
1.26769 2.24848 0.213101 
1.36952 2.38103 0.212096 
1.24104 2.35311 0.18373 
1.33994 2.47094 0.197399 
1.21929 2.41839 0.172436 
1.31496 2.57597 0.144524 
1.19206 2.47528 0.142068 
1.30943 2.60212 0.108765 
1.18359 2.53049 0.0816295 
1.13156 1.43368 0.0908779 
0.699085 2.38201 0.0914261 
0.855409 2.40915 0.07605 
0.71931 2.32853 0.15265 
0.865293 2.34704 0.132183 
0.768707 2.25826 0.188567 
0.881842 2.28153 0.157653 
0.784065 2.16937 0.227967 
0.899337 2.2105 0.184353 
0.820913 2.05167 0.258502 
0.916494 2.08547 0.220169 
0.869613 1.91721 0.273516 
0.957974 1.94856 0.229165 
0.897636 1.81003 0.291929 
1.00766 1.77835 0.25523 
0.936088 1.72311 0.289221 
0.945402 1.64066 0.285324 
1.04082 1.67873 0.240115 
0.960019 1.54696 0.231563 
1.05397 1.61264 0.203686 
1.0687 1.53548 0.169695 
1.10699 1.47067 0.12393 
0.839422 1.90627 0.319757 
0.871914 1.77994 0.316482 
0.888454 1.69987 0.318739 
0.888445 1.62278 0.318399 
0.867877 1.54601 0.318748 
0.714633 2.15084 0.265603 
0.75279 2.04302 0.311761 
0.766565 2.03908 0.299462 
0.779442 1.36167 0.415241 
0.844329 1.441 0.363296 
0.801977 1.41681 0.434672 
0.849618 1.51623 0.352835 
0.807676 1.51145 0.431569 
0.863553 1.62034 0.38378 
0.826186 1.61714 0.453865 
0.862375 1.69978 0.39514 
0.83479 1.69413 0.449267 
0.851549 1.77675 0.376626 
0.811454 1.80061 0.425631 
0.80626 1.92452 0.341401 
0.791352 1.92886 0.368171 
0.779027 2.04403 0.288027 
0.598271 2.37723 0.0815876 
0.620586 2.33238 0.152779 
0.672756 2.21938 0.242813 
0.69247 1.27469 0.448796 
0.648191 1.22222 0.441073 
0.570496 2.36489 0.0959052 
0.582478 2.34314 0.146184 
0.623601 2.25079 0.230243 
0.657173 2.16451 0.294525 
0.693016 2.0732 0.336592 
0.71597 1.948 0.405587 
0.737825 1.83681 0.459393 
0.758274 1.71368 0.501155 
0.760536 1.58781 0.51795 
0.739421 1.49566 0.504117 
0.733796 1.42895 0.50082 
0.709468 1.34232 0.461914 
0.545883 1.3113 0.527345 
0.455096 2.37755 0.0804243 
0.587927 1.44582 0.557408 
0.599984 1.52052 0.565506 
0.602417 1.57887 0.573224 
0.575929 1.72811 0.557307 
0.550247 1.83659 0.506587 
0.529309 1.96822 0.451053 
0.521514 2.10148 0.382018 
0.477957 2.24259 0.280812 
0.461427 2.31657 0.1801 
0.451186 2.35899 0.116447 
-0.243122 2.3456 0.0729816 
-0.0164301 2.3104 0.126306 
-0.237091 2.30667 0.129375 
-0.0216975 2.25479 0.205691 
-0.214296 2.26289 0.191697 
-0.00637012 2.13444 0.310935 
-0.206966 2.1756 0.279713 
0.0362125 2.03745 0.387407 
-0.23438 2.10316 0.363586 
0.0644202 1.93635 0.44264 
-0.202261 1.94942 0.480961 
0.072333 1.77075 0.524869 
-0.103996 1.75928 0.555118 
0.0672682 1.6893 0.545662 
-0.104044 1.6686 0.58444 
0.07716 1.62209 0.555867 
-0.113861 1.59412 0.600142 
0.0743565 1.55867 0.564057 
-0.102616 1.52027 0.606203 
0.0816122 1.46746 0.55011 
-0.100636 1.43092 0.603056 
0.0878759 1.3717 0.504804 
-0.0989703 1.32421 0.588981 
0.0765427 1.32176 0.488322 
-0.109078 1.22289 0.554818 
0.0726457 1.20884 0.451668 
-0.101541 1.10375 0.48565 
0.0799102 1.13135 0.408138 
-0.1078 1.02295 0.412008 
0.0685371 1.06699 0.368527 
-0.104217 0.98232 0.339306 
0.0650325 1.03194 0.323172 
0.0606197 0.961836 0.256111 
0.0607472 0.94233 0.187067 
-0.588431 2.35006 0.0841663 
-0.439353 2.34661 0.0688652 
-0.587514 2.32674 0.121789 
-0.459418 2.32047 0.119638 
-0.617872 2.30212 0.197468 
-0.45103 2.29318 0.173664 
-0.605216 2.25989 0.284709 
-0.420852 2.25181 0.242152 
-0.639101 2.19085 0.33761 
-0.426582 2.17874 0.310729 
-0.743111 2.13404 0.371413 
-0.520743 2.0463 0.430194 
-0.768884 2.0005 0.507394 
-0.392484 1.80532 0.595546 
-0.673378 1.79638 0.648951 
-0.339265 1.67533 0.651114 
-0.626245 1.68227 0.700512 
-0.333732 1.60451 0.673569 
-0.578316 1.53957 0.743672 
-0.326679 1.50404 0.682275 
-0.576888 1.34657 0.752127 
-0.337082 1.38182 0.696976 
-0.564333 1.20042 0.72753 
-0.332427 1.23652 0.668433 
-0.556475 1.07713 0.66512 
-0.360032 1.09903 0.617136 
-0.572794 0.986433 0.58092 
-0.373419 1.00948 0.547576 
-0.573627 0.944234 0.516879 
-0.373578 0.963961 0.481464 
-0.877541 2.37779 0.0609719 
-0.735852 2.3582 0.0690911 
-0.882852 2.35663 0.123805 
-0.762634 2.34273 0.131299 
-0.911567 2.33345 0.228718 
-0.790348 2.31199 0.241034 
-0.931725 2.3146 0.32191 
-0.802827 2.26847 0.337611 
-0.960535 2.27904 0.400105 
-0.833473 2.21702 0.363425 
-1.02563 2.22039 0.465064 
-0.90546 2.12872 0.419505 
-1.02624 2.10077 0.50952 
-0.871015 2.03472 0.488514 
-0.98288 1.98897 0.548232 
-0.847723 1.9594 0.554989 
-0.961346 1.8562 0.598183 
-0.835729 1.79016 0.644385 
-0.993922 1.73361 0.636914 
-0.816592 1.67598 0.686879 
-0.998383 1.59257 0.66819 
-0.80607 1.45225 0.747208 
-0.956858 1.29525 0.686822 
-0.816552 1.2199 0.722034 
-0.948338 1.18502 0.642013 
-0.809527 1.09989 0.661682 
-0.959878 1.10608 0.579171 
-0.783118 1.01437 0.598695 
-0.962215 1.05839 0.49272 
-0.761588 0.968223 0.517281 
0.381266 1.30589 0.551726 
0.383065 1.22509 0.534838 
0.302981 2.37267 0.100156 
0.312384 2.35156 0.129421 
0.318247 2.31689 0.178938 
0.32169 2.25718 0.26043 
0.327059 2.19145 0.3288 
0.35067 2.01687 0.438134 
0.355748 1.94315 0.472989 
0.37685 1.78849 0.518916 
0.385203 1.70219 0.536373 
0.390197 1.61179 0.551373 
0.391872 1.51964 0.560511 
0.398251 1.42249 0.571289 
0.183756 1.0167 0.301307 
0.19192 0.959636 0.256401 
0.197588 0.927634 0.193665 
0.195715 1.06619 0.364925 
0.263623 1.35436 0.489771 
0.210611 1.19381 0.443658 
0.200543 1.12477 0.396447 
-0.761901 0.92178 0.398496 
-0.943831 2.38331 0.0611529 
-0.957227 2.36311 0.120107 
-0.966598 2.34212 0.235431 
-0.987686 2.33293 0.320452 
-1.03915 2.29423 0.43516 
-1.10069 2.21653 0.492888 
-1.10594 2.08102 0.522942 
-1.13843 1.89292 0.535254 
-1.13347 1.80266 0.550339 
-1.13998 1.73002 0.571771 
-1.13302 1.61799 0.606551 
-1.13642 1.4787 0.619846 
-1.15185 1.36483 0.573354 
-1.12763 1.26347 0.519473 
-1.11646 1.18653 0.476366 
-1.08397 2.39188 0.0556873 
-1.09744 2.37376 0.111269 
-1.1108 2.36799 0.193357 
-1.19235 2.31612 0.357594 
-1.22161 2.21504 0.471196 
-1.21468 2.10314 0.506064 
-1.22935 1.96062 0.512954 
-1.23663 1.84464 0.526588 
-1.23265 1.78485 0.546389 
-1.19375 1.70594 0.577206 
-1.1781 1.61993 0.604188 
-1.20152 1.48177 0.609139 
-1.23816 1.37138 0.565327 
-1.2455 1.27018 0.493267 
-1.24254 1.21717 0.45567 
-1.23805 1.2021 0.427168 
-1.12736 1.15336 0.417981 
-0.870025 0.961382 0.392435 
-0.983815 1.03216 0.39632 
-0.944239 1.01247 0.402195 
-1.25841 2.40454 0.0631288 
-1.26748 2.39229 0.103186 
-1.28395 2.37607 0.193063 
-1.29921 2.31869 0.357124 
-1.31404 2.20099 0.478937 
-1.35383 2.07174 0.518381 
-1.3548 1.94193 0.532813 
-1.3363 1.84451 0.547986 
-1.29315 1.77143 0.563264 
-1.25436 1.69483 0.590661 
-1.25188 1.61153 0.624498 
-1.30603 1.43774 0.622307 
-1.34514 1.29917 0.561091 
-1.35207 1.19157 0.499426 
-1.35528 1.15122 0.462641 
-1.3585 1.11087 0.425855 
-1.51995 2.44304 0.0317397 
-1.53073 2.42813 0.0985798 
-1.53326 2.40792 0.176308 
-1.53861 2.37324 0.268667 
-1.5396 2.29832 0.388268 
-1.52525 2.15956 0.491646 
-1.47559 1.97154 0.554109 
-1.45965 1.8927 0.56181 
-1.45296 1.84967 0.563555 
-1.43216 1.7359 0.582546 
-1.41436 1.63773 0.606601 
-1.40614 1.55547 0.617229 
-1.39212 1.41923 0.608267 
-1.41309 1.24076 0.555123 
-1.47315 1.06929 0.5166 
-1.68754 2.47112 0.0246564 
-1.69837 2.42805 0.0979502 
-1.69733 2.41698 0.162211 
-1.7122 2.39207 0.25133 
-1.70189 2.33382 0.347938 
-1.67689 2.2475 0.417075 
-1.63342 2.08972 0.498431 
-1.58736 1.93646 0.535089 
-1.57184 1.8099 0.541802 
-1.57025 1.71984 0.547568 
-1.52617 1.63709 0.571024 
-1.50956 1.49669 0.592658 
-1.49507 1.37783 0.594637 
-1.49877 1.21172 0.558072 
-1.54325 1.06772 0.526863 
-1.89323 2.34611 0.141926 
-1.82217 2.40123 0.169684 
-1.89651 2.30128 0.228127 
-1.83842 2.36423 0.246681 
-1.89027 2.24156 0.271639 
-1.81346 2.30807 0.306133 
-1.87406 2.17092 0.312802 
-1.78672 2.23467 0.378566 
-1.85904 2.09055 0.33844 
-1.77203 2.13025 0.403688 
-1.83126 1.94175 0.39269 
-1.75072 1.95482 0.436731 
-1.79941 1.77063 0.437486 
-1.71375 1.80486 0.480331 
-1.77486 1.68042 0.466499 
-1.68381 1.70213 0.515645 
-1.73476 1.59494 0.493031 
-1.65159 1.61737 0.538144 
-1.70871 1.44686 0.514534 
-1.62318 1.45091 0.567057 
-1.70657 1.30874 0.504691 
-1.62057 1.33016 0.568158 
-1.71794 1.16301 0.471599 
-1.63665 1.16122 0.53966 
-1.73035 1.04801 0.443391 
-1.6565 1.04578 0.501834 
-1.74743 0.982462 0.426901 
-1.69197 0.968232 0.483025 
-1.98813 2.30388 0.132259 
-1.97181 2.24978 0.193193 
-1.96593 2.19865 0.223168 
-1.95293 2.12823 0.255021 
-1.9462 2.05075 0.273319 
-1.92107 1.92699 0.309725 
-1.88654 1.78203 0.37553 
-1.85115 1.67318 0.40692 
-1.82521 1.55324 0.42196 
-1.79214 1.41623 0.435955 
-1.76699 1.30183 0.449779 
-1.76909 1.17153 0.426028 
-1.78647 1.08426 0.405605 
-1.977 2.19887 0.0954694 
-1.97342 2.16424 0.121358 
-1.97088 2.11326 0.141794 
-1.96055 2.06355 0.163023 
-1.95699 2.01446 0.165563 
-1.94242 1.91226 0.187396 
-1.91557 1.77321 0.233328 
-1.89344 1.66503 0.2748 
-1.86614 1.54773 0.324678 
-1.84338 1.45185 0.33118 
-1.78919 1.28103 0.352091 
-1.42735 1.02777 0.428129 
-1.81493 0.927047 0.408396 
-1.58108 0.810576 0.316314 
-1.72266 0.488582 0.376221 
-1.77955 0.359688 0.48183 
-1.80534 0.356845 0.471115 
-1.79745 0.272915 0.499591 
-1.68761 0.384444 0.461901 
-1.72632 0.375461 0.457189 
-1.71135 0.303816 0.483598 
-1.67137 0.384365 0.428249 
-1.65811 0.310009 0.481592 
-1.7972 0.24785 0.493579 
-1.76256 0.280029 0.498563 
-1.80368 0.206348 0.496382 
-1.7645 0.218369 0.488773 
-1.75992 0.198078 0.476095 
-1.61332 0.252646 0.440196 
-1.64056 0.307558 0.43692 
-1.75076 0.374191 0.462968 
-1.7422 0.289934 0.50425 
-1.81135 0.254952 0.431812 
-1.80978 0.19918 0.420929 
-1.79391 0.207538 0.373655 
-1.81385 0.348329 0.428118 
-1.79654 0.370858 0.389596 
-1.77731 0.266651 0.376684 
-1.67791 0.238523 0.489822 
-1.62403 0.243574 0.48224 
-1.71777 0.227776 0.503095 
-1.73887 0.221181 0.499476 
-1.66784 0.325001 0.400906 
-1.73774 0.279593 0.360118 
-1.69491 0.312218 0.374722 
-1.66942 0.240259 0.381656 
-1.6327 0.248683 0.40978 
-1.7247 0.379357 0.374228 
-1.7456 0.383056 0.376877 
-1.68178 0.377396 0.405301 
-1.78747 1.09099 0.347991 
-1.77487 1.18526 0.363539 
-1.84736 1.46705 0.297938 
-1.919 1.97252 0.129306 
-1.90947 1.91396 0.125837 
-1.9007 1.79821 0.144073 
-1.89197 1.66893 0.191839 
-1.87166 1.56877 0.242991 
-1.93914 2.00507 0.00213196 
